# .PCD v0.7 - Point Cloud Data file format
VERSION 0.7
FIELDS x y z rgb
SIZE 4 4 4 4
TYPE F F F U
COUNT 1 1 1 1
WIDTH 147
HEIGHT 1
VIEWPOINT 0 0 0 1 0 0 0
POINTS 147
DATA ascii
-1.022125 -1.2286233 0.073053144 4289309097
-0.99364889 -1.2073365 0.073760614 4290361785
-0.97053611 -1.1741832 0.073609382 4291085508
-0.95340705 -1.1238916 0.073765084 4291414473
-0.95536208 -1.0711166 0.073745385 4290888129
-0.97206223 -1.0264281 0.074688897 4289703855
-1.1285985 -0.95567536 0.073967636 4284835173
-1.0714494 -0.95512706 0.075348884 4285098345
-1.0224456 -0.9738704 0.074596405 4287006342
-0.99285871 -0.99337214 0.076680779 4288453788
-1.1142336 -1.2509662 0.1243701 4285558896
-1.0232557 -1.2293925 0.12614514 4289309097
-0.99343014 -1.2068549 0.12427886 4290361785
-1.2246585 -1.1762897 0.12216476 4284900966
-0.97005081 -1.1736131 0.12471743 4291085508
-0.95337486 -1.1238847 0.12407742 4291414473
-0.94917303 -1.1110314 0.12774706 4291348680
-1.2431962 -1.0708994 0.12384872 4284769892
-0.95533454 -1.0711771 0.12384675 4290888129
-0.9491908 -1.0877006 0.12598661 4291151301
-1.2230161 -1.0216717 0.12480312 4284835173
-0.97189188 -1.0267946 0.12512544 4289703855
-1.2065829 -0.99662805 0.11987212 4284900966
-1.1763202 -0.97396833 0.12344979 4284900966
-1.1285816 -0.95557225 0.12387757 4284835173
-1.0711367 -0.95513284 0.12576964 4285098345
-1.0215408 -0.97436965 0.12518631 4287006342
-0.99105126 -0.99493688 0.12334535 4288519581
-1.1116182 -0.94918883 0.12475599 4284900966
-1.0879257 -0.94936019 0.12110113 4284835174
-1.1140163 -1.2509941 0.17320308 4285558896
-1.1273652 -1.2492822 0.17130263 4284966759
-1.0246956 -1.230216 0.17385888 4289243304
-0.99334508 -1.2068053 0.17385107 4290361785
-1.2248956 -1.1758302 0.17102507 4284900966
-0.96929312 -1.1726134 0.17396399 4291085508
-0.95332164 -1.124069 0.17357691 4291414473
-0.94918585 -1.1125087 0.17292894 4291414473
-1.243511 -1.0712763 0.17221263 4284769892
-0.95531076 -1.0710822 0.17381079 4290888129
-0.94912583 -1.0880332 0.17469542 4291151301
-1.2234395 -1.0221348 0.17388709 4284769380
-0.97189409 -1.026704 0.17491381 4289703855
-1.2041895 -0.99471122 0.17311795 4284900966
-1.1761311 -0.9739868 0.17307463 4284900966
-1.1284678 -0.95551735 0.17391336 4284835173
-1.070989 -0.95523423 0.17517468 4285098345
-1.0219979 -0.97400004 0.1740635 4287006342
-0.99114913 -0.9949156 0.1738552 4288519581
-1.1117628 -0.94925445 0.16966027 4284900966
-1.087829 -0.94937563 0.17083797 4284835429
-1.1273644 -1.2492893 0.22324622 4284966759
-1.0246226 -1.2303113 0.22391316 4289243304
-0.99353158 -1.2070541 0.22469203 4290361785
-1.2253575 -1.1748754 0.22273228 4284900966
-0.96919435 -1.1725334 0.22431861 4291085508
-0.95326179 -1.1240551 0.22407202 4291414473
-0.94925624 -1.1160929 0.22531618 4291414473
-1.2445747 -1.0750757 0.22288834 4284769892
-0.95525551 -1.0711545 0.2238252 4290822336
-0.94907027 -1.0882626 0.22461772 4291151301
-1.2228947 -1.0218642 0.22357517 4284572001
-0.97188407 -1.0265342 0.2242661 4289703855
-1.2052048 -0.99504101 0.22293465 4284900966
-1.1283712 -0.95555341 0.22390477 4284835173
-1.0709214 -0.95516109 0.22467762 4285098346
-1.0225886 -0.97366244 0.22414643 4287006342
-0.99133456 -0.9947176 0.22374935 4288519581
-1.110769 -0.94926786 0.2222921 4284900966
-1.0894525 -0.94929123 0.22229509 4284900966
-1.1143924 -1.250972 0.2740334 4285558896
-1.1273638 -1.2492963 0.27535588 4284966759
-1.0245922 -1.2302407 0.27392784 4289243304
-0.9930315 -1.2066309 0.27359682 4290427578
-0.96891671 -1.172071 0.27421337 4291151301
-0.95315003 -1.1239127 0.27405715 4291414473
-0.94920689 -1.1159012 0.27584442 4291414473
-1.2446918 -1.0751964 0.27318218 4284835429
-0.95514107 -1.0713995 0.27390611 4290888129
-0.94905543 -1.0880859 0.2744658 4291151301
-1.2233341 -1.0223087 0.27356651 4284637794
-0.97284228 -1.0251696 0.27563718 4289638062
-1.2051668 -0.99483526 0.27324194 4284900966
-1.1763653 -0.97406894 0.27301413 4284835173
-1.1282313 -0.95567143 0.27378339 4284835173
-1.0706553 -0.95517761 0.27493793 4285164138
-1.0250447 -0.97190398 0.2749224 4286874756
-0.99175459 -0.99430847 0.2740553 4288519581
-1.1102636 -0.94946945 0.27167055 4284900966
-1.0897517 -0.94925845 0.27201509 4284900966
-1.1145558 -1.2509216 0.32355848 4285558896
-1.0251211 -1.2305821 0.32397005 4289243304
-0.99296242 -1.2066294 0.32383913 4290427578
-0.96912986 -1.1725876 0.32489797 4291085508
-0.95305663 -1.1239133 0.32427621 4291414473
-0.94915748 -1.1157097 0.32634267 4291414473
-1.2435162 -1.0720503 0.3233743 4284835429
-0.95508063 -1.0713354 0.32403311 4290822336
-0.94904053 -1.0879092 0.32429022 4291151301
-0.97454613 -1.0224783 0.32427651 4289572269
-1.1761143 -0.97424221 0.32336548 4284835173
-1.1279287 -0.95585859 0.32355958 4284900966
-1.0707307 -0.95526958 0.32561916 4285098345
-1.0254689 -0.97150552 0.32470164 4286808963
-0.99177611 -0.99418956 0.32293415 4288519581
-1.0899248 -0.94948018 0.32209671 4284900966
-1.0240866 -1.2303264 0.37686062 4289243304
-0.99427134 -1.2082062 0.37659615 4290295992
-0.97027206 -1.1745683 0.37500593 4291085508
-1.244735 -1.1209962 0.35352913 4284900966
-0.95292908 -1.1239116 0.37463504 4291414473
-0.94911224 -1.1149458 0.3768869 4291414473
-0.95500594 -1.0715671 0.37443066 4290888129
-0.94903553 -1.0876307 0.3745575 4291151301
-1.2232136 -1.023093 0.3742995 4284835173
-0.97458869 -1.0220182 0.37501195 4289572269
-1.2034451 -0.99599636 0.37410074 4284900966
-1.1789738 -0.97633255 0.37380511 4284900966
-1.1281885 -0.95616943 0.37450594 4284900966
-1.0732526 -0.95493799 0.37412727 4285098345
-1.0262492 -0.9713313 0.37482828 4286808963
-0.9913038 -0.99429423 0.37367219 4288519581
-1.1028408 -0.94987488 0.37196019 4284900966
-1.0945189 -0.9495858 0.3724018 4284900966
-1.025342 -1.2312127 0.42478603 4289177511
-0.99379027 -1.2077498 0.42550439 4290361785
-0.97126675 -1.1760954 0.42368969 4291085508
-0.95297563 -1.123018 0.42378289 4291414473
-0.94906247 -1.1160474 0.41652709 4291414473
-0.95495731 -1.0719371 0.42331761 4290888129
-0.94885999 -1.0860327 0.42041805 4291151301
-0.97460115 -1.021803 0.42372233 4289572269
-1.1760427 -0.97444975 0.42365053 4284900966
-1.1280566 -0.95596874 0.42477512 4284900966
-1.0733796 -0.95458609 0.42281917 4285032552
-1.0273545 -0.97041619 0.4239136 4286743170
-0.99193633 -0.99393743 0.42336923 4288519581
-1.1028112 -0.94983339 0.42229813 4284900966
-1.0939294 -0.94960499 0.42259365 4284900966
-0.97159779 -1.1762882 0.47312513 4291085508
-0.97420371 -1.0214158 0.47328115 4289572269
-1.1755883 -0.97393435 0.47187534 4284900966
-1.0699952 -0.95386064 0.47313437 4285098345
-1.0287173 -0.9691053 0.47395465 4286677377
-0.99162138 -0.99385267 0.47275844 4288454044
-1.1027832 -0.94979239 0.47190961 4284900966
-1.0939029 -0.94956911 0.47235599 4284900966
