# .PCD v0.7 - Point Cloud Data file format
VERSION 0.7
FIELDS x y z rgb
SIZE 4 4 4 4
TYPE F F F U
COUNT 1 1 1 1
WIDTH 175
HEIGHT 1
VIEWPOINT 0 0 0 1 0 0 0
POINTS 175
DATA ascii
0.016201196 0.94879824 0.075433798 4286874756
-0.10671908 0.99368268 0.075204007 4284900966
-0.077541411 0.97375929 0.075434007 4284835173
-0.028637627 0.95517075 0.075204588 4285164138
0.024642266 0.95369291 0.075079538 4287269514
0.07566236 0.97189653 0.07472422 4289243304
0.1063146 0.99379969 0.073220327 4290427578
-0.12741847 1.0237217 0.075197741 4284835173
0.12633593 1.0231787 0.074791446 4291019715
-0.1464733 1.0733974 0.075083837 4284900966
0.14476688 1.0718982 0.074206986 4291414473
-0.15114446 1.1141226 0.074993826 4284900966
-0.14765884 1.1247551 0.074451901 4284900966
0.14483814 1.1280639 0.074081831 4290888129
0.1507525 1.1059374 0.076573826 4291217094
0.12645495 1.1748353 0.071928121 4289638062
0.026607323 1.2450271 0.074590616 4285098345
-0.0078797676 0.94966763 0.12600374 4285887861
0.017179588 0.94872111 0.12275188 4286940549
-0.1065044 0.99326724 0.12651731 4284900966
-0.077362925 0.97381622 0.1256226 4284835173
-0.028766533 0.95513552 0.12499638 4285164138
0.024618404 0.95365357 0.12516674 4287269514
0.075581379 0.97196192 0.12417664 4288980132
0.10584103 0.99293506 0.12317982 4290361785
-0.12755969 1.0237948 0.12567461 4284835173
0.12594122 1.022571 0.12469363 4291019715
-0.15085885 1.0862557 0.12482941 4284900966
-0.14650662 1.0737407 0.12568237 4284900966
0.1447541 1.0721406 0.12454001 4291414473
0.15079142 1.0888438 0.12547541 4291414473
-0.15122618 1.1136385 0.12484527 4284900966
-0.14766735 1.12501 0.12475844 4284900966
0.14453584 1.1291308 0.12453421 4290822336
0.15074947 1.1072432 0.12890843 4291217094
-0.13092831 1.1751444 0.12468735 4284835174
0.12621517 1.1749157 0.1234751 4289638062
-0.081504658 1.2255002 0.12377355 4284114777
-0.027276581 1.2444763 0.12514676 4284900966
0.025784029 1.2453128 0.12792401 4285032552
0.073934816 1.2282 0.12425372 4286874756
0.10363983 1.2075086 0.12168732 4288191384
0.016176291 0.94868064 0.17342114 4286874756
-0.10614979 0.99279284 0.17491749 4284900966
-0.077261589 0.97377062 0.17524719 4284835173
-0.028976444 0.95515597 0.17488374 4285164138
0.024784319 0.95369935 0.17517786 4287269514
0.07571356 0.97195715 0.1749482 4289243304
0.10636116 0.99344838 0.17460641 4290361785
-0.12756929 1.0233918 0.17469209 4284835173
0.12598585 1.0227872 0.17481901 4291019715
-0.15088339 1.0865586 0.17429116 4284900966
-0.14601295 1.0717245 0.17587249 4284900966
0.14477834 1.0722432 0.17362913 4291414473
0.15066618 1.0882804 0.1715326 4291414473
-0.15122156 1.1133387 0.17479204 4284900966
-0.1477495 1.1245483 0.17482825 4284900966
0.14506616 1.1278838 0.174226 4290888129
0.15075459 1.1073861 0.1733118 4291217094
-0.13204366 1.1731905 0.17436834 4284835174
0.12662731 1.1746771 0.17211163 4289638062
-0.10896327 1.2068603 0.17570892 4284639329
-0.02797368 1.2443885 0.17684838 4284900966
0.024876397 1.2453477 0.17425235 4285032552
0.07527703 1.2275119 0.17160751 4286940549
-0.0061596246 0.94947058 0.22146666 4285953654
0.014847913 0.94859213 0.22379331 4286808963
-0.10624041 0.99328727 0.22466519 4284900966
-0.077091955 0.9736861 0.22515644 4284900966
-0.028856251 0.95518464 0.22466618 4285164138
0.024795711 0.953623 0.22515288 4287269514
0.076050848 0.97198641 0.22416341 4289243304
0.10592809 0.99282992 0.22295745 4290361785
-0.12647834 1.0221763 0.22535864 4284835173
-0.15097548 1.0855446 0.22412109 4284900966
-0.14668092 1.0743843 0.22509407 4284900966
0.1448182 1.0720052 0.22380921 4291414473
0.1507553 1.0886729 0.22262724 4291348680
-0.15126491 1.112918 0.22454806 4284900966
-0.14783704 1.1255082 0.22472647 4284900966
0.14462693 1.129063 0.22308464 4290888129
0.15040238 1.1111691 0.22644535 4291151301
-0.13187329 1.1734917 0.22473259 4284835174
0.12675709 1.1747665 0.2223918 4289638062
-0.10996402 1.2069768 0.22589931 4284574048
-0.029138079 1.2439442 0.22449461 4284900966
0.025378963 1.2453762 0.22366999 4285032552
0.075027697 1.2277316 0.22162211 4286874756
0.01534643 0.9486174 0.27346686 4286874756
-0.10619068 0.99335611 0.27450565 4284900966
-0.029133564 0.95516968 0.27487373 4285164138
0.024398616 0.95338094 0.27456832 4287269514
0.076918736 0.97256243 0.27412966 4289309097
0.10595857 0.99280381 0.2732037 4290361785
-0.12764868 1.023491 0.27461234 4284835173
-0.15102549 1.0852816 0.27435309 4284900966
-0.14715905 1.0740533 0.27536389 4284900966
0.14474924 1.0720634 0.27363142 4291414473
0.15061897 1.0875067 0.27174115 4291414473
-0.15103297 1.1172171 0.2762683 4284900966
-0.14757864 1.1302142 0.27472574 4284900966
0.14499302 1.1277359 0.27335101 4290888129
0.15044571 1.1113613 0.27510077 4291151301
-0.13170904 1.174235 0.27399117 4284835429
0.1266603 1.1747223 0.27308062 4289638062
-0.078755222 1.226377 0.27478924 4284508513
-0.029993789 1.2438165 0.27429235 4284900966
0.024847336 1.2454878 0.27192128 4285032552
0.10411802 1.2073073 0.2690056 4288387995
0.016381448 0.94873595 0.32052597 4286874756
-0.10615229 0.99330884 0.32476962 4284900966
-0.075754702 0.97300315 0.32575947 4284900966
-0.029270535 0.95498574 0.32479021 4285164138
0.024640229 0.95329183 0.32423726 4287269514
0.077820517 0.9732219 0.32359231 4289374890
0.10599759 0.99284488 0.3227255 4290361785
-0.12812577 1.0239711 0.3258352 4284900966
0.12589134 1.0226935 0.32435846 4291019715
-0.15109569 1.0852396 0.32443693 4284900966
-0.14725991 1.0734328 0.326565 4284900966
0.14477117 1.0720632 0.32414597 4291414473
0.15069561 1.0876825 0.3223255 4291414473
-0.15106311 1.1193769 0.32434455 4284900966
-0.14782956 1.1305758 0.32577035 4284900966
0.14508501 1.1270102 0.32192066 4290888129
0.15039787 1.11113 0.32629088 4291217094
-0.130978 1.1760185 0.32548383 4284835429
0.12772651 1.173436 0.32302755 4289703855
-0.10480056 1.2110081 0.32459164 4284573794
-0.030211158 1.2439247 0.32492691 4284900966
-0.0085669709 0.94948822 0.37368903 4285887861
0.019664241 0.94897932 0.37378752 4287006342
-0.10564508 0.99215472 0.37635833 4284900966
-0.075462893 0.97263646 0.37535819 4284900966
-0.029392188 0.95500338 0.37516534 4285164138
0.024345446 0.95327753 0.37471008 4287269514
0.078051478 0.97351211 0.37392449 4289374890
0.10613785 0.99295717 0.37312803 4290361785
-0.12750109 1.0234683 0.37467226 4284900966
0.12617828 1.0236192 0.37330499 4291019715
-0.15098388 1.0856475 0.37645581 4284900966
-0.1470603 1.0715599 0.37403807 4284900966
0.14443226 1.0716051 0.37408462 4291414473
0.15070632 1.0878334 0.35417902 4291414473
-0.15132819 1.1183157 0.37453783 4284900966
-0.14769799 1.131735 0.37505478 4284900966
0.14440288 1.1262563 0.37141877 4290888129
0.15049151 1.1064792 0.35418975 4291282887
-0.13069887 1.1767616 0.37448215 4284835428
0.12452315 1.1755601 0.37308961 4289638062
-0.036188841 1.2424053 0.36007082 4284900966
-0.0083865281 0.94946051 0.42438641 4285887861
0.021010743 0.94911897 0.42223409 4287072135
-0.10453591 0.9909026 0.42468381 4284900966
-0.074162088 0.97131205 0.42463812 4284900966
-0.029382888 0.95495713 0.42486399 4285164138
0.025298972 0.95360231 0.42427108 4287335307
0.078142859 0.97351354 0.42383996 4289374890
0.10596745 0.99277741 0.42317834 4290361785
-0.12775686 1.0232584 0.4261598 4284900966
0.12629507 1.0244125 0.42490587 4291019715
-0.15086898 1.0854582 0.42741448 4284900966
-0.14672644 1.0667475 0.42662188 4284900966
0.14436565 1.0717083 0.42392695 4291414473
-0.15143748 1.1185994 0.42490596 4284900966
-0.14787969 1.1321967 0.42483649 4284900966
-0.0084517784 0.9494164 0.47248638 4285887861
-0.074144401 0.97104275 0.47467324 4284900966
-0.028803425 0.95495993 0.4745298 4285229931
0.077509381 0.97286391 0.47254011 4289374890
-0.12843537 1.0243777 0.47378084 4284900966
-0.14675839 1.0666764 0.47581294 4284900966
0.14458992 1.0716182 0.47366467 4291414473
-0.15158051 1.1191738 0.47478735 4284900966
-0.14557487 1.0576537 0.5081619 4284639329
