# .PCD v0.7 - Point Cloud Data file format
VERSION 0.7
FIELDS x y z rgb
SIZE 4 4 4 4
TYPE F F F U
COUNT 1 1 1 1
WIDTH 160
HEIGHT 1
VIEWPOINT 0 0 0 1 0 0 0
POINTS 160
DATA ascii
1.0241176 -1.2246175 0.074521616 4284900966
1.174469 -1.2280673 0.076197036 4288980132
1.2276043 -1.1754556 0.076275781 4291019715
1.2471957 -1.1317166 0.074704699 4291414473
0.94720823 -1.0782076 0.074458346 4284900966
0.95525968 -1.0716393 0.075025633 4284835173
1.2471272 -1.0672663 0.074391991 4290822336
0.98970115 -0.99352294 0.075193629 4284835173
1.023384 -0.97110832 0.075576767 4284835173
1.0746243 -0.95407516 0.074649833 4284900966
1.1245174 -0.95427489 0.07402119 4285032552
1.1757922 -0.97127777 0.073056482 4286545791
1.2063026 -0.99407959 0.073811047 4288453788
1.078337 -0.94678307 0.076339431 4284900966
0.99248618 -1.2028636 0.12466757 4284900966
1.0707413 -1.2431142 0.12472142 4285164138
1.1243571 -1.2448534 0.12531936 4287072135
1.1747061 -1.227932 0.12636623 4288716960
1.2059824 -1.2047497 0.12982126 4290361785
0.97468835 -1.1746335 0.12528826 4284900966
1.2276559 -1.175395 0.12640591 4291019715
0.94774169 -1.1101856 0.12549235 4284900966
0.95650285 -1.1284581 0.12546286 4284900966
1.2473873 -1.1311741 0.12668082 4290561724
1.2514001 -1.1125176 0.12424246 4291414473
0.9471609 -1.0787289 0.12563574 4284900966
0.95517504 -1.0717086 0.12536252 4284900966
1.247268 -1.0676446 0.12473275 4290822336
1.2512497 -1.0904852 0.12423942 4291217094
0.96834838 -1.0250092 0.12574843 4284900710
1.2310021 -1.0273173 0.12475627 4289769648
0.98968124 -0.9935323 0.12620963 4284900709
1.0234321 -0.97105283 0.12640242 4284835173
1.074737 -0.95413452 0.1251446 4284900966
1.1246129 -0.95420408 0.12473322 4285032552
1.1747674 -0.97164047 0.12474743 4286874756
1.2075729 -0.99543154 0.12924229 4288519581
1.0789592 -0.94673145 0.12702096 4284900966
1.1193312 -0.94666988 0.12553354 4284900966
1.0252144 -1.2253898 0.17493054 4284900966
1.0710449 -1.2434623 0.17379379 4285164138
1.1248177 -1.2447412 0.17508432 4287137928
0.97451001 -1.1744341 0.17426334 4284900966
1.2281247 -1.1745876 0.17628556 4291085508
0.94794804 -1.1125643 0.17760041 4284900966
0.95660836 -1.1288379 0.1750938 4284900966
1.247434 -1.1309255 0.17291652 4290561724
1.2514337 -1.1123556 0.17349362 4291414473
0.94710606 -1.0789454 0.17527083 4284900966
0.95529473 -1.0717522 0.17460884 4284900966
1.2474831 -1.0682087 0.17434636 4290822336
1.2510353 -1.0867609 0.17341968 4291151301
0.96815693 -1.025231 0.17467563 4284835173
1.2310972 -1.0274343 0.17435236 4289769648
0.99156398 -0.99291158 0.17433891 4284900709
1.0230478 -0.97132224 0.17597906 4284900966
1.0747198 -0.95406908 0.17452234 4284900966
1.1246414 -0.95418495 0.1743997 4285032552
1.1750221 -0.97171342 0.17471313 4286874756
1.208636 -0.99649113 0.17520013 4288585374
1.0788482 -0.94662255 0.17339082 4284900966
1.1212022 -0.9463641 0.17294048 4284966759
0.99297673 -1.20316 0.22022563 4284900966
1.0229092 -1.223998 0.22203864 4284900966
1.0708485 -1.2430702 0.2234669 4285164138
0.97449273 -1.1742851 0.22399464 4284900966
1.2289832 -1.1732529 0.21983019 4291085508
0.94801414 -1.1129653 0.22156818 4284900966
0.95667744 -1.1288291 0.22548801 4284900966
1.2474951 -1.1307555 0.22432381 4290693054
1.2514679 -1.1121864 0.22355716 4291414473
0.94742692 -1.0758799 0.2232824 4284900966
0.95529836 -1.0718178 0.22484899 4284835173
1.247538 -1.0682358 0.22437704 4290888129
1.2510468 -1.0866255 0.22384158 4291151301
1.2311071 -1.027456 0.22438481 4289769648
0.99219102 -0.99265552 0.22642729 4284835174
1.023182 -0.97139877 0.22467683 4284835173
1.0747724 -0.95411134 0.2243191 4284900966
1.1254755 -0.95425296 0.22441448 4285032552
1.1749991 -0.97164279 0.22451709 4286874756
1.2086182 -0.99641293 0.22501938 4288585374
1.0785544 -0.94661635 0.22217917 4284900966
1.1213763 -0.94640118 0.22320481 4284966759
0.99489546 -1.2052152 0.27240014 4284900966
1.0217565 -1.2236812 0.27117208 4284900966
1.0724111 -1.2441192 0.27265248 4285229931
1.1218375 -1.2450895 0.27240303 4287006342
0.97534448 -1.1761819 0.27223366 4284900966
0.94992244 -1.1049044 0.27123749 4284900966
0.95619535 -1.1287673 0.27574813 4284900966
1.248459 -1.1302735 0.27394751 4291480266
0.94960117 -1.0971949 0.27238569 4284900966
0.95515716 -1.0718445 0.27582297 4284900966
1.2475485 -1.0681119 0.27452475 4290888129
0.97191322 -1.0251492 0.27386844 4284835174
1.2308922 -1.0270176 0.27501911 4289769648
0.99312741 -0.99249548 0.27516314 4284835173
1.0235282 -0.97084337 0.27349916 4284900966
1.0750301 -0.95405436 0.27419373 4284900966
1.1258025 -0.95427644 0.27459395 4285032552
1.1749519 -0.97163379 0.27457967 4286874756
1.2086 -0.9963342 0.27528155 4288585374
1.0785534 -0.94663012 0.27399725 4284900966
1.1206385 -0.94658393 0.27624738 4284966759
0.99473888 -1.205528 0.31733572 4284900966
1.0232128 -1.2248005 0.32053769 4284900966
0.97563189 -1.176697 0.32137108 4284900966
0.94989693 -1.1049994 0.31644177 4284900966
0.95633799 -1.128691 0.32509637 4284900966
1.2485322 -1.129932 0.32429066 4291480266
0.94961536 -1.0957541 0.31699777 4284900966
0.95527154 -1.0718163 0.32667401 4284900966
1.2476982 -1.0683439 0.32313576 4290888129
0.97228271 -1.0257908 0.32541114 4284835173
1.2310911 -1.0272604 0.32442582 4289769648
0.99331087 -0.99243444 0.32517716 4284835173
1.0235462 -0.97071534 0.32357386 4284900966
1.0750413 -0.95395797 0.32442382 4284900966
1.1260422 -0.95429391 0.32448292 4285032552
1.1747825 -0.97145712 0.32466325 4286874756
1.2079775 -0.99568337 0.32632333 4288519581
1.0785998 -0.94660091 0.32582888 4284900966
1.1194708 -0.94656134 0.32703874 4284966759
0.97786212 -1.1765695 0.3750236 4284900966
1.241538 -1.1582295 0.37405792 4286348412
0.95692509 -1.1287408 0.37425029 4284900966
0.95543373 -1.0731666 0.3745515 4284900966
1.2471569 -1.0657389 0.37413204 4290822336
0.97252798 -1.0257919 0.37599745 4284900966
1.2308626 -1.0267935 0.37505221 4289769648
0.9935416 -0.99228495 0.3744671 4284900966
1.0235996 -0.97067547 0.37425774 4284835173
1.0738196 -0.95420212 0.37549421 4284900966
1.1262274 -0.95424402 0.3744635 4285032552
1.1746947 -0.97134972 0.37463748 4286874756
1.2083789 -0.99605322 0.37451592 4288519581
1.0786519 -0.94653541 0.37659496 4284900966
1.1223038 -0.94669586 0.37443048 4284966759
0.95484209 -1.0750154 0.42514569 4284900966
1.2471592 -1.0655931 0.42432016 4290822336
0.97245485 -1.0257885 0.42577451 4284900966
1.2311555 -1.0273125 0.42361045 4289769648
0.99354947 -0.99223697 0.4236581 4284900966
1.0732954 -0.95438004 0.42417836 4284900966
1.1266418 -0.95430779 0.42450172 4285032552
1.1714689 -0.96969211 0.42470375 4286677377
1.2064968 -0.99426627 0.42450222 4288453788
1.0786734 -0.94658422 0.42635798 4284900966
1.1210262 -0.94666702 0.42466506 4284966759
1.2473966 -1.0653054 0.47375485 4290822336
1.0236509 -0.97059202 0.47479776 4284900966
1.0746945 -0.95408177 0.47397333 4284900966
1.1268697 -0.95450163 0.47385013 4285032552
1.0806481 -0.94626224 0.47518349 4284900966
1.1211686 -0.94669729 0.47644728 4284966759
1.0615804 -0.95408475 0.50843126 4284572001
1.1295811 -0.95067358 0.50933039 4284243036
1.0810252 -0.94595915 0.50816554 4284769380
1.1212496 -0.94671446 0.50872523 4285032552
