# .PCD v0.7 - Point Cloud Data file format
VERSION 0.7
FIELDS x y z rgb
SIZE 4 4 4 4
TYPE F F F U
COUNT 1 1 1 1
WIDTH 1039
HEIGHT 1
VIEWPOINT 0 0 0 1 0 0 0
POINTS 1039
DATA ascii
-0.67578918 -0.82328415 0.011804754 4288387995
-0.62630326 -0.82665521 0.011816419 4288387995
-0.57566595 -0.82701206 0.011735745 4288387995
-0.52535808 -0.82633543 0.011841109 4288387995
-0.47484031 -0.82464671 0.01184011 4288387995
-0.42247221 -0.82463413 0.011709656 4288387995
-0.37424245 -0.82528901 0.011724092 4288387995
-0.32440475 -0.82465005 0.01192271 4288387995
-0.27517214 -0.82581705 0.011725575 4288387995
-0.23000135 -0.82317227 0.01171564 4288256409
-0.17547187 -0.82492989 0.012658307 4288387995
-0.12214502 -0.8226015 0.013056837 4288322202
-0.076044329 -0.82490951 0.012293017 4288387995
-0.025440354 -0.82762372 0.012176936 4288387995
0.026215114 -0.82593459 0.012556473 4288387995
0.073698096 -0.82597345 0.012038958 4288387995
0.12571913 -0.82617074 0.012148085 4288387995
0.17600515 -0.82128078 0.01212797 4288387995
0.22602117 -0.8246296 0.011882897 4288387995
0.2744514 -0.82598072 0.012053077 4288387995
0.32501557 -0.8253454 0.012089194 4288387995
0.37599933 -0.82585615 0.011735271 4288387995
0.42373127 -0.82537872 0.011563174 4288387995
0.47379455 -0.82473755 0.011713706 4288387995
0.52403682 -0.82412142 0.011768601 4288387995
0.57418025 -0.82652044 0.011310625 4288387995
0.62491614 -0.82389396 0.011608021 4288387995
0.67487031 -0.8255527 0.011496105 4288387995
0.72482568 -0.82412457 0.011737646 4288387995
0.77482253 -0.82465911 0.011469544 4288322202
0.82490081 -0.82483697 0.011738155 4288322202
0.8747009 -0.82534826 0.011656132 4288322202
0.92589813 -0.82459646 0.011752568 4288387995
0.97507554 -0.82516569 0.011892078 4288322202
1.0222826 -0.82423806 0.012080085 4288387995
1.0760859 -0.82549769 0.012380503 4288387995
1.1259547 -0.82479095 0.011991303 4288387995
1.1678667 -0.82767338 0.012287687 4288387995
1.223395 -0.82135206 0.013861716 4288387995
1.2745767 -0.82166499 0.012646826 4288387995
1.3238605 -0.82662159 0.012792501 4288387995
1.3712273 -0.82383031 0.01301996 4288387995
-1.3751446 -0.77516359 0.011389632 4288387995
-1.32479 -0.77544343 0.011792365 4288387995
-1.2750553 -0.77467173 0.011978114 4288387995
-1.2252853 -0.77529854 0.012135795 4288387995
-1.1751271 -0.77520478 0.0120945 4288387995
-1.1255108 -0.77434653 0.011576587 4288387995
-1.0753396 -0.77488929 0.011670837 4288387995
-1.0249345 -0.7755726 0.011559805 4288322202
-0.97482663 -0.77498633 0.011828796 4288387995
-0.92398232 -0.77432591 0.012033123 4288322202
-0.87421519 -0.77465159 0.011643577 4288387995
-0.82393622 -0.77522194 0.011605178 4288387995
-0.77414268 -0.77598208 0.0116691 4288387995
-0.7241441 -0.77482492 0.011740267 4288387995
-0.67480284 -0.77470785 0.011679056 4288387995
-0.62749273 -0.7746526 0.011651357 4288387995
-0.5762471 -0.772627 0.011591682 4288387995
-0.52653325 -0.77289337 0.011713075 4288387995
-0.47326696 -0.7730189 0.011828054 4288387995
-0.42309594 -0.77456683 0.011994638 4288387995
-0.37550521 -0.77605456 0.012002823 4288387995
-0.32595736 -0.77419198 0.011776948 4288387995
-0.27366549 -0.77515262 0.011878435 4288387995
-0.22465795 -0.77603054 0.011601764 4288322202
-0.17365348 -0.77494192 0.011908663 4288322202
-0.12988736 -0.77256483 0.012005564 4288387995
-0.074341163 -0.77571517 0.012899867 4288387995
-0.024224129 -0.77717143 0.012743703 4288387995
0.023388045 -0.77501559 0.012160803 4288387995
0.074019521 -0.774737 0.012138131 4288387995
0.12369832 -0.77445859 0.011916743 4288387995
0.17615964 -0.77464253 0.012240111 4288387995
0.22463365 -0.77328426 0.011587091 4288387995
0.27549744 -0.77388692 0.011932898 4288387995
0.32329062 -0.7740702 0.011980122 4288387995
0.37664011 -0.77447248 0.011621259 4288387995
0.42518345 -0.77548683 0.011984756 4288387995
0.47462067 -0.77447462 0.011996362 4288387995
0.52421862 -0.7750749 0.011860762 4288387995
0.57594669 -0.77521521 0.01160211 4288387995
0.62536162 -0.77508688 0.011839114 4288387995
0.67487639 -0.77477479 0.01143751 4288387995
0.72486496 -0.77524614 0.011498639 4288387995
0.77497232 -0.77498037 0.01165756 4288387995
0.82510072 -0.77506256 0.011983263 4288387995
0.87510085 -0.77529311 0.012102322 4288322202
0.92515218 -0.77504927 0.01223227 4288387995
0.97313505 -0.77525812 0.012097779 4288387995
1.0278789 -0.77586257 0.012133967 4288387995
1.0754569 -0.77572769 0.012429251 4288387995
1.1243756 -0.7762754 0.012287706 4288387995
1.1759318 -0.7772308 0.011877511 4288387995
1.2215447 -0.77740484 0.012911079 4288387995
1.2748617 -0.77209115 0.012778208 4288387995
1.326412 -0.77290064 0.011992489 4288387995
1.3753749 -0.77641928 0.012921532 4288387995
-1.3746551 -0.72537178 0.011405727 4288322202
-1.3249192 -0.7247507 0.011715702 4288387995
-1.275453 -0.72427726 0.01184705 4288387995
-1.2250026 -0.72574997 0.011943744 4288387995
-1.1749169 -0.72468054 0.011728956 4288387995
-1.1247927 -0.72492653 0.011677916 4288387995
-1.0749184 -0.72515404 0.011790787 4288387995
-1.0248948 -0.72471529 0.011665 4288387995
-0.97346818 -0.72360045 0.012162057 4288322202
-0.92601317 -0.72513372 0.011824071 4288387995
-0.87422365 -0.72305632 0.011617804 4288387995
-0.8265714 -0.72549158 0.011580335 4288387995
-0.77354091 -0.72490668 0.01141232 4288387995
-0.72458214 -0.72485191 0.011358471 4288387995
-0.6744706 -0.72449791 0.011631177 4288387995
-0.62513411 -0.72440559 0.011630653 4288387995
-0.57566088 -0.72603655 0.011802984 4288387739
-0.52618694 -0.7237792 0.011667669 4288387739
-0.47553805 -0.72324759 0.01160249 4288387995
-0.42557475 -0.72550029 0.011777999 4288387995
-0.37594098 -0.72447687 0.011766084 4288387995
-0.32357776 -0.72385949 0.011994958 4288387995
-0.2766369 -0.72593904 0.0118583 4288322202
-0.22531565 -0.72363383 0.012145222 4288322202
-0.1736553 -0.7250728 0.011767673 4288387995
-0.12466858 -0.72473711 0.011497264 4288387995
-0.06963975 -0.7269184 0.012600644 4288387995
-0.027205348 -0.7235682 0.012613371 4288387995
0.029962324 -0.72607654 0.012465152 4288387995
0.073929608 -0.72584772 0.01179055 4288387995
0.12523599 -0.72383976 0.011908799 4288387995
0.17451014 -0.72538787 0.012007567 4288387995
0.22594875 -0.72447443 0.011787188 4288387995
0.27671543 -0.72416472 0.011371862 4288387995
0.32481048 -0.72554284 0.011594789 4288387995
0.37450588 -0.72518885 0.011354083 4288387995
0.42498142 -0.72468287 0.011549572 4288387995
0.47474122 -0.72449923 0.011583566 4288387995
0.5248974 -0.72473931 0.011818789 4288387995
0.57471174 -0.7251631 0.012258548 4288387995
0.62472361 -0.72509134 0.012252032 4288387995
0.67505449 -0.72534662 0.011883905 4288387995
0.72564363 -0.72502792 0.012313646 4288387995
0.77440715 -0.72468728 0.011917935 4288387995
0.82502687 -0.72488594 0.012147784 4288387995
0.87519795 -0.72476631 0.012126016 4288387995
0.92391163 -0.72566092 0.012162241 4288387995
0.97305048 -0.72380912 0.011760702 4288387995
1.0230727 -0.72536194 0.011937889 4288387995
1.0743531 -0.7242161 0.012395683 4288387995
1.1227819 -0.72483587 0.012200429 4288387995
1.1736381 -0.72510165 0.012602279 4288387995
1.2245837 -0.72423154 0.01255698 4288387995
1.2750247 -0.72446293 0.012606178 4288387995
1.3257357 -0.7259742 0.012387365 4288387995
1.3808074 -0.72176987 0.012573331 4288387995
-1.374629 -0.67467344 0.011424171 4288387995
-1.3253638 -0.67541474 0.011424518 4288387995
-1.2755095 -0.67586166 0.011908778 4288387995
-1.2252967 -0.6749897 0.011972365 4288387995
-1.1744769 -0.6755935 0.011827759 4288387995
-1.1245924 -0.67551368 0.011655015 4288387995
-1.0748982 -0.67491746 0.011513391 4288387995
-1.0250127 -0.6753518 0.011844979 4288322202
-0.97513962 -0.67517555 0.012157686 4288387995
-0.92418516 -0.67699063 0.011663646 4288387995
-0.87475312 -0.67472667 0.011868013 4288387995
-0.82584685 -0.67453951 0.011670537 4288387995
-0.77470797 -0.67393798 0.011402328 4288387995
-0.72489756 -0.67529887 0.011338722 4288387995
-0.67432159 -0.67347318 0.011681123 4288387995
-0.62560922 -0.67420208 0.011746598 4288387995
-0.5748381 -0.67542356 0.011760265 4288387995
-0.52563053 -0.67465919 0.011546494 4288387995
-0.47410277 -0.67650902 0.01163687 4288387995
-0.42495191 -0.67453408 0.011477791 4288387995
-0.37474582 -0.67486304 0.011668313 4288387995
-0.32455686 -0.67466658 0.011908919 4288322202
-0.27497387 -0.67577839 0.011666715 4288322202
-0.2247148 -0.67431009 0.011695128 4288387995
-0.17509663 -0.67513084 0.012139779 4288387995
-0.12908684 -0.67645705 0.011566678 4288387995
-0.073715687 -0.67506051 0.012547994 4288387995
-0.016768554 -0.67669898 0.0125142 4288387995
0.024214583 -0.6740213 0.012632377 4288387995
0.074325919 -0.67581803 0.01214478 4288387995
0.12586923 -0.67673743 0.011450969 4288387995
0.17531809 -0.6731168 0.012130926 4288387995
0.22406895 -0.67488939 0.011563146 4288387995
0.27554315 -0.67523062 0.011527926 4288387995
0.32609791 -0.67509925 0.011701197 4288387995
0.37606484 -0.67564499 0.011538604 4288387995
0.42540479 -0.67490309 0.01152838 4288387995
0.47580355 -0.67422682 0.011822416 4288387995
0.52535087 -0.67453307 0.012107063 4288387995
0.57586712 -0.67526877 0.011781102 4288387995
0.62441683 -0.67573977 0.01174636 4288387995
0.67508096 -0.67533571 0.011735431 4288387995
0.72414327 -0.67565566 0.011893906 4288387995
0.77419299 -0.67465347 0.011761849 4288387995
0.8229779 -0.67464876 0.011904088 4288387995
0.87507188 -0.67597425 0.011879695 4288387995
0.92494601 -0.67489159 0.012047088 4288387995
0.97467321 -0.67419451 0.012128517 4288387995
1.0227175 -0.67395985 0.011739923 4288387995
1.0753092 -0.67533278 0.012222299 4288387995
1.1245505 -0.6744048 0.012525559 4288387995
1.1759149 -0.67620492 0.012207212 4288387995
1.2253356 -0.67518306 0.012960708 4288387995
1.2735997 -0.67953968 0.012100601 4288387995
1.3247809 -0.67287868 0.012550509 4288387995
1.370392 -0.67627048 0.012058459 4288387995
-1.3745381 -0.62525868 0.011253336 4288387995
-1.3250189 -0.62513471 0.01158521 4288387995
-1.274857 -0.6258024 0.011762458 4288387995
-1.2246344 -0.62487674 0.011803594 4288387995
-1.1745958 -0.62461472 0.011680845 4288387995
-1.1253464 -0.62565291 0.011620182 4288387995
-1.0749344 -0.62474191 0.01140546 4288322202
-1.0241635 -0.62405634 0.011590537 4288387995
-0.97457141 -0.62418711 0.011832739 4288387995
-0.92475545 -0.62566233 0.01171184 4288387995
-0.87511873 -0.62438715 0.01205276 4288387995
-0.82332307 -0.62489182 0.011478216 4288387995
-0.7744503 -0.62496465 0.011384126 4288387995
-0.72534311 -0.6241672 0.01140036 4288387995
-0.67547011 -0.62508994 0.01193786 4288387995
-0.62438339 -0.62324846 0.011920271 4288387739
-0.57521856 -0.62449193 0.01158453 4288387995
-0.52553821 -0.62473035 0.011540738 4288387995
-0.47493359 -0.62470812 0.011410421 4288387995
-0.42514572 -0.62531352 0.011489954 4288387995
-0.37606499 -0.62364054 0.011703681 4288322202
-0.32523483 -0.62613213 0.011818776 4288387995
-0.27591881 -0.62431431 0.011503884 4288322202
-0.22645634 -0.62376386 0.011609514 4288387995
-0.17572077 -0.62533492 0.011488822 4288387995
-0.12557751 -0.62525201 0.012486611 4288387995
-0.071635939 -0.62260598 0.012731641 4288387995
-0.035656858 -0.62732106 0.012540302 4288387995
0.02680365 -0.62399077 0.01255618 4288387995
0.075066075 -0.62406945 0.012848626 4288387995
0.12545234 -0.62331063 0.012015703 4288387995
0.17530245 -0.62439865 0.012055591 4288387995
0.22538501 -0.62470937 0.012009509 4288387995
0.27554381 -0.62569755 0.011670649 4288387995
0.32513854 -0.62483382 0.011648916 4288387995
0.37553731 -0.62502921 0.011315126 4288387995
0.42566705 -0.62497038 0.011428634 4288387995
0.47569892 -0.62532431 0.011594284 4288387995
0.52538985 -0.62609208 0.011827064 4288387995
0.5757556 -0.62428653 0.011357619 4288387995
0.6261605 -0.62690634 0.011851552 4288387995
0.67490083 -0.62452149 0.012137549 4288387995
0.72657049 -0.62484926 0.011856216 4288387995
0.77554601 -0.62549704 0.011899471 4288387995
0.82450831 -0.62686718 0.012055281 4288387995
0.87496632 -0.62652016 0.012136618 4288387995
0.92576206 -0.62476015 0.012176934 4288387995
0.97598469 -0.6234436 0.011919679 4288387995
1.0259542 -0.62551302 0.012179795 4288387995
1.074366 -0.62436825 0.011901581 4288387995
1.126932 -0.62551826 0.012500524 4288387995
1.1732721 -0.62252033 0.012161689 4288387995
1.2234894 -0.62346053 0.01256515 4288387995
1.2750865 -0.62338328 0.012160381 4288387995
1.3263791 -0.62663966 0.012177078 4288387995
1.3744026 -0.62522763 0.012251545 4288387995
-1.3747429 -0.57477659 0.01136377 4288387995
-1.325529 -0.57491738 0.011609399 4288387995
-1.2752296 -0.57523215 0.011630162 4288387995
-1.2254989 -0.57490027 0.011592866 4288387995
-1.174925 -0.57485425 0.011633948 4288387995
-1.1246608 -0.57490808 0.011612045 4288387995
-1.0747803 -0.57482696 0.011402147 4288387995
-1.0259969 -0.57422876 0.011554423 4288387995
-0.97526234 -0.57556766 0.011640932 4288387995
-0.92356622 -0.57265192 0.012177191 4288387995
-0.87588459 -0.57483643 0.011820114 4288387995
-0.82525849 -0.5746612 0.011498909 4288387995
-0.77496248 -0.57448488 0.011445411 4288387995
-0.72649318 -0.57438415 0.011758625 4288387995
-0.67551708 -0.57330734 0.012056351 4288387995
-0.62563378 -0.57419348 0.011595702 4288387995
-0.57453543 -0.57463479 0.011782468 4288387995
-0.52566767 -0.57515842 0.011634152 4288387995
-0.47468442 -0.57522756 0.011560767 4288322202
-0.42487568 -0.57522923 0.011479733 4288387995
-0.37335837 -0.57612175 0.011613384 4288387995
-0.32560155 -0.57541883 0.011692479 4288387995
-0.27503958 -0.57442218 0.011684027 4288322202
-0.22508746 -0.57502973 0.01158727 4288387995
-0.1750173 -0.57445902 0.01128695 4288387995
-0.12269228 -0.57792056 0.012595337 4288387995
-0.075606897 -0.57583135 0.012836662 4288387995
-0.024727637 -0.57841086 0.012991381 4288387995
0.028882686 -0.57283074 0.012901575 4288387995
0.075039253 -0.57774878 0.012624342 4288387995
0.12541646 -0.57555264 0.012121043 4288387995
0.17498131 -0.57546544 0.011463586 4288387995
0.22514933 -0.57644302 0.011433993 4288387995
0.27506298 -0.57430995 0.01143905 4288387995
0.32552809 -0.57481652 0.01202342 4288387995
0.37615505 -0.5746516 0.011587222 4288387995
0.42514291 -0.57538575 0.011607282 4288387995
0.47433448 -0.57509977 0.011657961 4288387995
0.5245707 -0.57546043 0.011848856 4288387995
0.57381326 -0.57487732 0.011642933 4288387995
0.62565196 -0.57476461 0.011747907 4288387995
0.67256618 -0.57448345 0.01198405 4288387995
0.72608566 -0.57484704 0.012085296 4288387995
0.77444649 -0.57547307 0.01179893 4288387995
0.82427675 -0.57490593 0.012148976 4288387995
0.87519699 -0.57588321 0.012569184 4288387995
0.92549026 -0.57531965 0.01255806 4288387995
0.97617382 -0.57562143 0.012358744 4288387995
1.0228488 -0.57546318 0.01202119 4288387995
1.0728204 -0.57518297 0.012110624 4288387995
1.1263171 -0.57545996 0.01245779 4288387995
1.1758014 -0.57551521 0.012322343 4288387995
1.2221332 -0.57552719 0.012471098 4288387995
1.2746203 -0.57583261 0.012177014 4288387995
1.3242682 -0.57910407 0.012319022 4288387995
1.3767592 -0.57000625 0.012384025 4288387995
-1.3750207 -0.52473062 0.011501602 4288387995
-1.3245658 -0.52464962 0.01132339 4288387995
-1.2751385 -0.52500558 0.011668491 4288387995
-1.2245466 -0.52497202 0.011609214 4288387995
-1.1744232 -0.52511835 0.011544604 4288387995
-1.124966 -0.52489734 0.011553518 4288387995
-1.0748565 -0.52526891 0.011378852 4288322202
-1.0248477 -0.52539927 0.011420697 4288387995
-0.97574854 -0.52653593 0.011764659 4288387995
-0.92509377 -0.52539295 0.011764627 4288387995
-0.87525994 -0.5229618 0.011729871 4288387995
-0.8243506 -0.52440637 0.011699253 4288387995
-0.77459407 -0.52483106 0.011539381 4288387995
-0.72563785 -0.52523595 0.011806525 4288387995
-0.67523557 -0.52486479 0.011788386 4288387995
-0.62479156 -0.52564228 0.011837411 4288387995
-0.57577807 -0.52586359 0.011912491 4288387995
-0.52502787 -0.52480376 0.011628086 4288387995
-0.47504967 -0.52526915 0.01152687 4288387995
-0.42523673 -0.5249005 0.011777798 4288387995
-0.37558451 -0.52600014 0.011548718 4288387995
-0.32495412 -0.5248912 0.011604359 4288322202
-0.27461559 -0.52542394 0.01140402 4288322202
-0.22493963 -0.52509725 0.011606079 4288387995
-0.17536694 -0.52448285 0.011788024 4288387995
-0.12431548 -0.52775449 0.012454114 4288387995
-0.072883338 -0.52237344 0.012584141 4288387995
-0.023008149 -0.52346659 0.012717806 4288387995
0.0227318 -0.52215296 0.012230894 4288387995
0.075651065 -0.52983248 0.012487272 4288387995
0.12565218 -0.52540374 0.011970467 4288387995
0.17378443 -0.52482754 0.012355554 4288387995
0.22366349 -0.52493161 0.01173608 4288387995
0.27275211 -0.52423286 0.011615222 4288387995
0.3260093 -0.52517271 0.011938388 4288387995
0.37420473 -0.52591008 0.01201279 4288387995
0.42500323 -0.52513373 0.011731677 4288387995
0.47316137 -0.52515292 0.011792845 4288387995
0.52443647 -0.52475351 0.011842242 4288387995
0.57340175 -0.52529997 0.011983651 4288387995
0.62423813 -0.52607214 0.0122366 4288387995
0.67552781 -0.52419466 0.012661584 4288387995
0.72541314 -0.52519953 0.01265421 4288387995
0.77269936 -0.52643406 0.012355935 4288387995
0.82668066 -0.52273858 0.012451123 4288387995
0.87443888 -0.52637124 0.012719131 4288387995
0.92474484 -0.52532518 0.012969065 4288387995
0.9748866 -0.52397621 0.012031992 4288387995
1.0244061 -0.52533811 0.012069129 4288387995
1.0758576 -0.52554947 0.011994561 4288387995
1.1230459 -0.52234614 0.012035951 4288387995
1.173071 -0.52752799 0.012076478 4288387995
1.2259963 -0.52387744 0.012569981 4288387995
1.272818 -0.5237835 0.012281192 4288387995
1.3296182 -0.52330768 0.012113487 4288387995
1.3749803 -0.52532905 0.012514616 4288387995
-1.3747509 -0.47492996 0.011266121 4288387995
-1.3247578 -0.47486642 0.011359976 4288387995
-1.2749938 -0.47514698 0.011485829 4288387995
-1.2249436 -0.4753181 0.011634903 4288387995
-1.1743954 -0.47561917 0.011663769 4288387995
-1.1237738 -0.47316593 0.011770482 4288387995
-1.0721475 -0.47485286 0.011700293 4288387995
-1.0209649 -0.47756627 0.011786668 4288387995
-0.97535241 -0.47432023 0.011609117 4288387995
-0.92477918 -0.47433516 0.011565004 4288387995
-0.87519151 -0.47420761 0.011851356 4288387995
-0.82528949 -0.47419646 0.011589539 4288387995
-0.77465117 -0.47519597 0.011518065 4288387995
-0.72913027 -0.47708121 0.011612812 4288387995
-0.67306536 -0.47562584 0.011692021 4288387995
-0.62540221 -0.47468564 0.012095244 4288387995
-0.57623863 -0.47330645 0.011989175 4288322202
-0.52539176 -0.47460008 0.011649898 4288387995
-0.47486964 -0.47535554 0.011668993 4288387995
-0.42456269 -0.47548917 0.011727153 4288387995
-0.37433839 -0.47430167 0.011992373 4288387995
-0.32531878 -0.47499207 0.011771297 4288322202
-0.27458814 -0.47539353 0.011489103 4288387995
-0.22587213 -0.47585651 0.011354289 4288387995
-0.17637163 -0.47493562 0.011884366 4288387995
-0.12321604 -0.47753182 0.012469969 4288387995
-0.070922896 -0.47302482 0.012593294 4288387995
-0.025672819 -0.47936553 0.012443837 4288387995
0.02452133 -0.47537571 0.012625725 4288387995
0.070306905 -0.47572049 0.012358488 4288387995
0.12472992 -0.47470912 0.01208411 4288387995
0.17548631 -0.47504044 0.012015772 4288387995
0.22355065 -0.47494611 0.011969044 4288387995
0.27537769 -0.47351703 0.011485164 4288387995
0.32523042 -0.47609454 0.011705412 4288387995
0.37492779 -0.47535104 0.012000655 4288387995
0.42467245 -0.47412333 0.011897873 4288387995
0.47592255 -0.47347561 0.011856094 4288387995
0.5245015 -0.47339031 0.012093616 4288387995
0.57352138 -0.47647744 0.012039106 4288387995
0.62631559 -0.47766435 0.012294307 4288387995
0.67561901 -0.47272381 0.011672111 4288387995
0.72498047 -0.47479829 0.012151533 4288387995
0.77463394 -0.47595736 0.012176574 4288387995
0.82393199 -0.47622374 0.011877932 4288387995
0.87655014 -0.47397506 0.011922213 4288387995
0.9246996 -0.47508362 0.011840114 4288387995
0.97367746 -0.47405577 0.011412079 4288387995
1.0248682 -0.47711036 0.011946524 4288387995
1.0755183 -0.47325391 0.012055532 4288387995
1.1229373 -0.47477323 0.0121198 4288387995
1.1741427 -0.47493255 0.012162918 4288387995
1.2230015 -0.47667432 0.012593627 4288387995
1.2720689 -0.47254875 0.012129425 4288387995
1.3243823 -0.47717822 0.012220514 4288387995
1.3740014 -0.47475511 0.012126937 4288387995
-1.3745874 -0.42523462 0.01122892 4288387995
-1.3245101 -0.42481372 0.011229759 4288387995
-1.275027 -0.4247238 0.011530604 4288387995
-1.2248056 -0.42485589 0.011640985 4288387995
-1.175555 -0.4238919 0.011536243 4288387995
-1.1245289 -0.42540947 0.011725529 4288322202
-1.0732936 -0.42334163 0.011634091 4288387995
-1.0244033 -0.42523575 0.011630481 4288387995
-0.97503382 -0.42438993 0.011608361 4288387995
-0.92343903 -0.42511779 0.011714517 4288387995
-0.87530881 -0.42493823 0.011997113 4288387995
-0.82344234 -0.4253161 0.012015223 4288387995
-0.77614874 -0.42597759 0.011712969 4288387995
-0.72674674 -0.42348579 0.011684247 4288387995
-0.67575151 -0.42305967 0.012214044 4288322202
-0.62501609 -0.42430896 0.011983383 4288387995
-0.57590282 -0.42360786 0.011562067 4288387995
-0.52486205 -0.42498982 0.011917179 4288387995
-0.4750998 -0.42496789 0.011756234 4288387995
-0.42632297 -0.42474014 0.011763808 4288387995
-0.37462547 -0.42527854 0.012278309 4288387995
-0.32375145 -0.42638397 0.012022329 4288322202
-0.2742137 -0.42482066 0.011712585 4288387995
-0.22475165 -0.42544124 0.011612288 4288387995
-0.17562449 -0.42443526 0.011894378 4288387995
-0.12785877 -0.42276266 0.012505557 4288387995
-0.072216883 -0.42467406 0.012639811 4288387995
-0.024626505 -0.42848501 0.012258048 4288387995
0.023595808 -0.426296 0.012420687 4288387995
0.07391493 -0.42409691 0.012761912 4288387995
0.12421214 -0.42316049 0.012631168 4288387995
0.1758891 -0.42376742 0.012371916 4288387995
0.22579539 -0.42603588 0.012238796 4288387995
0.2758427 -0.42563415 0.012025309 4288387995
0.32514453 -0.42486069 0.012187558 4288387995
0.37613827 -0.42571694 0.011596217 4288387995
0.42563882 -0.42567834 0.011631493 4288387995
0.47578222 -0.42452189 0.0113283 4288387995
0.52508157 -0.42468774 0.011847086 4288387995
0.57523042 -0.42443696 0.011567774 4288387995
0.62696594 -0.42548513 0.011754699 4288387995
0.67428023 -0.4227078 0.012005486 4288387995
0.72435468 -0.42331961 0.012058658 4288387995
0.77605999 -0.42443898 0.01163991 4288387995
0.82513994 -0.42420137 0.011370346 4288387995
0.87420535 -0.42486235 0.011616197 4288387995
0.92586803 -0.42473838 0.011736103 4288387995
0.97538155 -0.42475131 0.011678956 4288387995
1.0249751 -0.42507091 0.011705385 4288387995
1.0736206 -0.42589408 0.012417593 4288387995
1.1241025 -0.42392045 0.012185425 4288387995
1.173979 -0.42779109 0.012137035 4288387995
1.2270186 -0.42116523 0.012577334 4288387995
1.2752395 -0.42779431 0.012258308 4288387995
1.3249792 -0.42756522 0.012090538 4288387995
1.3737552 -0.42545119 0.012137321 4288387995
-1.3745292 -0.37449154 0.011240951 4288387995
-1.3247802 -0.37471455 0.011094456 4288387995
-1.2749109 -0.37482843 0.011613455 4288387995
-1.2255211 -0.37497798 0.011620582 4288387995
-1.1747222 -0.37519649 0.011503853 4288387995
-1.1250834 -0.37459651 0.011626934 4288322202
-1.0750623 -0.37516204 0.011633818 4288387995
-1.025769 -0.37661386 0.011652401 4288387995
-0.97144973 -0.37465823 0.011715965 4288387995
-0.92636043 -0.37486604 0.011770252 4288387995
-0.87451112 -0.37616941 0.011721293 4288387995
-0.82366174 -0.37608382 0.011824295 4288387995
-0.77688748 -0.37772304 0.011724432 4288387995
-0.7255367 -0.37654272 0.011765476 4288387995
-0.67565793 -0.37554577 0.011936786 4288387995
-0.62698752 -0.37634456 0.012066325 4288387995
-0.5743745 -0.37453294 0.012037267 4288387995
-0.52648687 -0.3763445 0.011885546 4288387995
-0.47595415 -0.3743771 0.011851647 4288387995
-0.42460036 -0.37513772 0.012026555 4288387995
-0.37665692 -0.37381783 0.012272277 4288387995
-0.32449692 -0.37586215 0.011906764 4288322202
-0.27423134 -0.37469596 0.011635764 4288387995
-0.2260785 -0.37594143 0.011753849 4288387995
-0.17576861 -0.37459186 0.012240532 4288387995
-0.1257495 -0.37741306 0.012485662 4288387995
-0.072862327 -0.37326968 0.012719912 4288387995
-0.028143251 -0.37748578 0.012237947 4288387995
0.024979606 -0.37683237 0.0126603 4288387995
0.074250452 -0.37514046 0.012648456 4288387995
0.12548044 -0.37543443 0.012646643 4288387995
0.17843451 -0.37659988 0.012096934 4288387995
0.22502597 -0.37638602 0.011504536 4288387995
0.27697036 -0.3743988 0.011668482 4288387995
0.32633597 -0.37602219 0.01162992 4288387995
0.37593886 -0.37564841 0.011602201 4288387995
0.42598742 -0.37484875 0.011538755 4288387995
0.47516304 -0.37514275 0.011606556 4288387995
0.52421045 -0.37404644 0.011627164 4288387995
0.57239294 -0.37535447 0.012234951 4288387995
0.62854898 -0.36971653 0.012122909 4288387995
0.67242771 -0.37538776 0.011998 4288387995
0.72536749 -0.37496865 0.01183056 4288387995
0.775186 -0.37546891 0.011523388 4288387995
0.82525396 -0.37398541 0.011652206 4288387995
0.87502176 -0.37514475 0.011940217 4288387995
0.92533094 -0.37418476 0.012178571 4288387995
0.97493035 -0.37478411 0.011783912 4288387995
1.0242041 -0.37667495 0.011782258 4288387995
1.0742675 -0.37571862 0.011895987 4288387995
1.1266303 -0.37605941 0.012516994 4288387995
1.1764221 -0.377395 0.012109324 4288387995
1.2231699 -0.37471271 0.012645773 4288387995
1.2744739 -0.3764388 0.0120933 4288387995
1.3284011 -0.37111303 0.012262272 4288387995
1.371628 -0.37942719 0.012107931 4288387995
-1.3745456 -0.32522777 0.01115503 4288387995
-1.3251848 -0.32476425 0.011100749 4288387995
-1.275133 -0.32501763 0.011449738 4288387995
-1.2252645 -0.32460541 0.011413398 4288387995
-1.1752545 -0.32540357 0.011530177 4288322202
-1.1256176 -0.32581785 0.011491925 4288387995
-1.0753798 -0.32461989 0.011455381 4288387995
-1.0252955 -0.32361308 0.011712384 4288387995
-0.97398055 -0.32668674 0.011717466 4288387995
-0.92329508 -0.32595071 0.011785211 4288387995
-0.87548012 -0.32724169 0.011859686 4288387995
-0.82508999 -0.32137385 0.011973171 4288322202
-0.77424681 -0.32531792 0.011971096 4288387995
-0.72278601 -0.32530612 0.0120302 4288387995
-0.67405814 -0.32415798 0.012110005 4288387995
-0.62408674 -0.32487911 0.012118298 4288387995
-0.57589823 -0.32388684 0.012089338 4288387995
-0.52491635 -0.32559451 0.01188967 4288387995
-0.47463638 -0.32556158 0.012081447 4288387995
-0.42428994 -0.32517079 0.01213418 4288387995
-0.37465641 -0.32515112 0.012071279 4288322202
-0.32515776 -0.32513827 0.011893729 4288387995
-0.27502671 -0.32455432 0.011530469 4288387995
-0.22513871 -0.32534406 0.011684074 4288387995
-0.17615171 -0.32525697 0.012487884 4288387995
-0.13152298 -0.3284902 0.012417397 4288387995
-0.069357075 -0.32471257 0.012763991 4288387995
-0.026429156 -0.32195896 0.012233293 4288387995
0.029693067 -0.32425416 0.012377581 4288387995
0.07298889 -0.32653373 0.012352105 4288387995
0.12578189 -0.32671934 0.012180066 4288387995
0.17588331 -0.32510737 0.012239174 4288387995
0.22516309 -0.3260414 0.011906971 4288387995
0.27499422 -0.32532507 0.011283451 4288387995
0.3248187 -0.32568374 0.011631581 4288387995
0.37435073 -0.32407942 0.011421229 4288387995
0.42494273 -0.32571715 0.011510263 4288387995
0.47516572 -0.32693768 0.011585207 4288387995
0.52352452 -0.32645902 0.011967868 4288387995
0.57493228 -0.32471627 0.01205295 4288387995
0.62362701 -0.32006994 0.012252204 4288387995
0.67582744 -0.32411695 0.012682181 4288387995
0.72549117 -0.32582629 0.012196243 4288387995
0.77460825 -0.3255668 0.011752963 4288387995
0.82563037 -0.32401827 0.01164331 4288387995
0.875292 -0.32567707 0.011842255 4288387995
0.92721856 -0.32458711 0.012111011 4288387995
0.97724116 -0.32449454 0.011878313 4288387995
1.0246899 -0.32433599 0.011598167 4288387995
1.0755115 -0.32502583 0.011505807 4288387995
1.1253614 -0.3237665 0.011905024 4288387995
1.1746324 -0.32303146 0.012451435 4288387995
1.2247907 -0.32430339 0.012371968 4288387995
1.2763202 -0.3255344 0.012142154 4288387995
1.3250293 -0.32668838 0.012420589 4288387995
1.3765757 -0.32678401 0.012082549 4288387995
-1.3750726 -0.27463397 0.011229482 4288387995
-1.3233322 -0.27421936 0.011330344 4288387995
-1.274637 -0.27502477 0.011323171 4288387995
-1.2250854 -0.27480558 0.011429174 4288387995
-1.1754724 -0.27503154 0.011524746 4288322202
-1.1267718 -0.27507168 0.011319798 4288387995
-1.0747063 -0.27585864 0.01151663 4288387995
-1.0273519 -0.27538529 0.011703073 4288387995
-0.97290409 -0.27571982 0.011602391 4288387995
-0.92232972 -0.27385584 0.011929367 4288387995
-0.87576979 -0.27438936 0.011822491 4288387995
-0.82388735 -0.27620897 0.011929962 4288387995
-0.77564788 -0.277226 0.012179186 4288387995
-0.72626638 -0.27425244 0.012378323 4288387995
-0.67608315 -0.27417684 0.012049083 4288387995
-0.62524974 -0.27489269 0.011931027 4288387995
-0.57489157 -0.27458906 0.012013381 4288387995
-0.52579522 -0.27487788 0.011843261 4288387995
-0.47398028 -0.27750564 0.011861465 4288387995
-0.42509842 -0.27592567 0.012142487 4288387995
-0.3762466 -0.2742568 0.012100041 4288322202
-0.32582292 -0.27967259 0.012218987 4288387995
-0.27534741 -0.27735522 0.012293459 4288387995
-0.22851712 -0.27654374 0.012691025 4288387995
-0.17568319 -0.27516806 0.013019493 4288387995
-0.12785594 -0.27021521 0.012344364 4288387995
-0.073315658 -0.27629477 0.012483356 4288387995
-0.022312094 -0.27710393 0.012696122 4288387995
0.024379453 -0.27547309 0.012579169 4288387995
0.072728388 -0.27347741 0.012232106 4288387995
0.12610109 -0.27365172 0.012091587 4288387995
0.17433989 -0.27523988 0.01213751 4288387995
0.22227767 -0.27430344 0.011799345 4288387995
0.27488524 -0.27566394 0.011629448 4288387995
0.32535794 -0.27506658 0.0118736 4288387995
0.37416744 -0.27292278 0.01193087 4288387995
0.42382747 -0.27490833 0.012006931 4288387995
0.47487378 -0.27440807 0.012293085 4288387995
0.52311695 -0.27561101 0.012276882 4288387995
0.56976342 -0.27509132 0.011584913 4288387995
0.6322915 -0.27769217 0.012123317 4288387995
0.6759178 -0.27996334 0.0121706 4288387995
0.72568911 -0.27358475 0.012132709 4288387995
0.77344716 -0.27728382 0.011409547 4288387995
0.82475179 -0.27563819 0.011519967 4288387995
0.87440932 -0.27473077 0.012082583 4288387995
0.9253208 -0.27277875 0.011686245 4288387995
0.97536522 -0.27494946 0.011374371 4288387995
1.0247194 -0.274977 0.011466555 4288387995
1.0747747 -0.2745643 0.011652865 4288387995
1.1234541 -0.27422491 0.011608467 4288387995
1.174132 -0.27559599 0.012053704 4288387995
1.2217014 -0.27545542 0.0128064 4288387995
1.2730595 -0.27109548 0.012010796 4288387995
1.325799 -0.27490166 0.012302385 4288387995
1.3747721 -0.27363127 0.012057509 4288387995
-1.3746085 -0.22484998 0.011313938 4288387995
-1.3252068 -0.22486863 0.011421347 4288387995
-1.2744876 -0.22506376 0.011254814 4288387995
-1.2248759 -0.225291 0.011331392 4288387995
-1.174939 -0.22472396 0.011595964 4288322202
-1.1266065 -0.22544466 0.011346557 4288387995
-1.0746164 -0.22561164 0.011533068 4288387995
-1.0245805 -0.22563666 0.011655842 4288387995
-0.97468632 -0.22244456 0.011815471 4288387995
-0.92688131 -0.22467491 0.011948701 4288322202
-0.87267947 -0.22475497 0.011743981 4288387995
-0.82596564 -0.22387862 0.011990477 4288387995
-0.77423269 -0.22675124 0.011970252 4288387995
-0.72472411 -0.22474171 0.012513821 4288387995
-0.67536992 -0.22611527 0.011711651 4288387995
-0.62564349 -0.22674511 0.011623507 4288387995
-0.57596904 -0.22540449 0.011822961 4288387995
-0.52674305 -0.22572903 0.012140622 4288387995
-0.47377923 -0.22342204 0.012054748 4288387995
-0.42292362 -0.22627589 0.012179838 4288387995
-0.3773376 -0.22461133 0.01259616 4288322202
-0.32411978 -0.22514513 0.012054263 4288387995
-0.27673638 -0.22696695 0.012136367 4288387995
-0.22824383 -0.22573468 0.01257273 4288387995
-0.17415737 -0.22562739 0.012316341 4288387995
-0.12100737 -0.22643621 0.012437344 4288387995
-0.071466155 -0.22516362 0.012404984 4288387995
-0.024732517 -0.22675844 0.012688259 4288387995
0.022967756 -0.2230206 0.012362434 4288322202
0.074967556 -0.223093 0.012483343 4288387995
0.12569089 -0.22569364 0.012545401 4288387995
0.17489333 -0.22644849 0.012532649 4288387995
0.22545673 -0.22477685 0.011895097 4288387995
0.27456436 -0.22432484 0.011692465 4288387995
0.32564574 -0.22420993 0.011488098 4288387995
0.37496662 -0.2247787 0.011343253 4288387995
0.42472288 -0.22418064 0.011623776 4288387995
0.47418427 -0.22060451 0.011550685 4288387995
0.5244174 -0.22483478 0.011793678 4288387995
0.57397324 -0.2251699 0.011521869 4288387995
0.62366527 -0.22499245 0.01218689 4288387995
0.6728248 -0.22313501 0.012137465 4288387995
0.72615719 -0.2235668 0.012163743 4288387995
0.77576709 -0.22298184 0.011612221 4288387995
0.82625407 -0.22224636 0.011493806 4288387995
0.87614959 -0.22403646 0.011757915 4288387995
0.92537069 -0.22514601 0.011962661 4288387995
0.97410923 -0.22438626 0.011420934 4288387995
1.0246866 -0.22530746 0.011409883 4288387995
1.0737826 -0.22501732 0.011668057 4288387995
1.1248436 -0.22439352 0.011840083 4288387995
1.1740125 -0.22406329 0.011813397 4288387995
1.2241735 -0.22248617 0.012473586 4288387995
1.2722882 -0.22445348 0.011994234 4288387995
1.3261195 -0.22447948 0.012157903 4288322202
1.3723267 -0.22788323 0.01208341 4288387995
-1.3752719 -0.17500496 0.011273985 4288387995
-1.325192 -0.1748053 0.011413994 4288387995
-1.2746807 -0.17609231 0.011533696 4288387995
-1.2250822 -0.17519337 0.011442992 4288322202
-1.1745524 -0.17544009 0.01122484 4288387995
-1.1221621 -0.16692711 0.017898291 4287532686
-1.0791225 -0.17025533 0.016608672 4287927444
-1.0261489 -0.17555036 0.011632813 4288387995
-0.97296125 -0.17549497 0.01189704 4288387995
-0.92443562 -0.17635655 0.012141474 4288387995
-0.87178355 -0.17635983 0.012137097 4288387995
-0.8240127 -0.17416276 0.011939121 4288387995
-0.77888399 -0.17681818 0.012087738 4288387995
-0.72179806 -0.17497306 0.011729212 4288387995
-0.67470789 -0.17537586 0.011724032 4288387995
-0.62467337 -0.17433245 0.011604308 4288387995
-0.57518619 -0.17450316 0.011824858 4288387995
-0.52585149 -0.17311345 0.011995826 4288387995
-0.4750517 -0.17358056 0.012164298 4288387995
-0.4255515 -0.1758095 0.012289621 4288387995
-0.37199685 -0.17535341 0.011993176 4288387995
-0.32732025 -0.17573996 0.012297571 4288387995
-0.27666891 -0.17240904 0.011788273 4288387995
-0.22571416 -0.17660081 0.012360464 4288387995
-0.17348558 -0.17377824 0.01236058 4288387995
-0.12585969 -0.17827679 0.012326005 4288387995
-0.073676847 -0.17295055 0.012549308 4288387995
-0.017983174 -0.16856976 0.016213294 4287861651
0.02792038 -0.18240678 0.012457799 4288387995
0.076877981 -0.17348883 0.012384054 4288322202
0.12566382 -0.17502022 0.012451212 4288387995
0.17559765 -0.17421101 0.011674392 4288387995
0.22537845 -0.17484735 0.011371993 4288387995
0.27437478 -0.17549741 0.011774315 4288387995
0.32518151 -0.17541307 0.011638603 4288387995
0.37597919 -0.17433223 0.01133732 4288387995
0.42477503 -0.17507111 0.011355846 4288387995
0.4753069 -0.17433918 0.011096478 4288387995
0.52534044 -0.17506471 0.01123194 4288387995
0.57584023 -0.17556034 0.011380544 4288387995
0.62583113 -0.17500222 0.011597016 4288387995
0.6755507 -0.1753767 0.011673745 4288387995
0.72547221 -0.17414349 0.011938049 4288387995
0.77397442 -0.17641109 0.011911231 4288387995
0.82563943 -0.1758433 0.012027182 4288387995
0.87481833 -0.17602742 0.011715383 4288387995
0.92586708 -0.17457677 0.011783645 4288322202
0.97441012 -0.17578204 0.01188903 4288322202
1.0255389 -0.17457364 0.011386346 4288322202
1.0742271 -0.17495807 0.011410723 4288322202
1.1263589 -0.17396964 0.012224563 4288322202
1.1743423 -0.17621726 0.011722231 4288387995
1.2242376 -0.17536829 0.012106993 4288387995
1.2760468 -0.17345105 0.012188797 4288387995
1.325018 -0.17578107 0.011932257 4288387995
1.3764493 -0.17163266 0.011963138 4288387995
-1.3750256 -0.12482987 0.011399154 4288387995
-1.3243932 -0.12501103 0.011383769 4288387995
-1.2743107 -0.12494905 0.011378322 4288387995
-1.2231401 -0.12318034 0.014104442 4287861651
-1.1744663 -0.13231839 0.025827989 4285690482
-1.1275741 -0.14526461 0.0294981 4285295724
-1.073723 -0.14621527 0.028744254 4287401100
-1.0262805 -0.1314258 0.027449241 4288980132
-0.98088896 -0.11824054 0.020039571 4289177511
-0.92640424 -0.12444179 0.011893121 4288387995
-0.87559879 -0.12591344 0.012659851 4288387995
-0.82519466 -0.12699588 0.011973744 4288387995
-0.77550536 -0.122241 0.012288094 4288387995
-0.72625107 -0.12495995 0.01202353 4288387995
-0.67457622 -0.12451386 0.011751503 4288387995
-0.62560636 -0.12426558 0.011735297 4288387995
-0.57585186 -0.12515044 0.011775407 4288387995
-0.5249213 -0.12430079 0.012023576 4288387995
-0.47463903 -0.12450168 0.012013489 4288387995
-0.42381042 -0.12626597 0.0120232 4288387995
-0.37500492 -0.12293331 0.011701293 4288322202
-0.32513383 -0.12492666 0.012065229 4288387995
-0.27341893 -0.12162061 0.012088607 4288387995
-0.22755739 -0.1230286 0.012161016 4288387995
-0.17476313 -0.12315334 0.012272309 4288322202
-0.12250978 -0.1217917 0.015862649 4287664272
-0.076326355 -0.12720367 0.027070142 4285361517
-0.027188241 -0.14553262 0.029435504 4285295724
0.027259627 -0.14614733 0.029591566 4287401100
0.07976985 -0.12759994 0.02697536 4289243304
0.12303227 -0.12242588 0.014884445 4288716960
0.17579363 -0.12634595 0.011734998 4288322202
0.22735687 -0.12533368 0.011683961 4288387995
0.27570903 -0.12510285 0.011532293 4288387995
0.3253614 -0.124408 0.011709706 4288387995
0.37594727 -0.12491835 0.011886258 4288387995
0.42549315 -0.12491341 0.011799645 4288387995
0.47475335 -0.12549518 0.011489371 4288387995
0.52518791 -0.12451794 0.011456045 4288387995
0.57555664 -0.12526581 0.011315684 4288387995
0.62489134 -0.12386367 0.011256662 4288387995
0.6748758 -0.12564166 0.011173666 4288387995
0.72477829 -0.1250207 0.011567306 4288387995
0.77165151 -0.12560284 0.011517362 4288387995
0.82606757 -0.12397475 0.011988803 4288322202
0.87408531 -0.12389807 0.011507181 4288387995
0.92552203 -0.12580751 0.011934697 4288322202
0.97894335 -0.12185806 0.017084811 4287335307
1.02029 -0.12721415 0.026655316 4285493103
1.0755732 -0.14553733 0.030385051 4285361517
1.1293397 -0.14392306 0.030154536 4287466893
1.178941 -0.12712541 0.026278811 4289111718
1.2221051 -0.12018841 0.017601969 4288848546
1.2769142 -0.12406023 0.011830549 4288387995
1.3255317 -0.12388325 0.011976943 4288387995
1.3755301 -0.12537973 0.011851002 4288387995
-1.375035 -0.075743742 0.011387168 4288387995
-1.323195 -0.075246796 0.011528241 4288387995
-1.2748281 -0.074909411 0.011583591 4288387995
-1.2317305 -0.077243797 0.0240057 4286019447
-0.97071677 -0.073556393 0.03027471 4291085508
-0.91848469 -0.093117245 0.012415996 4288387995
-0.87451839 -0.073977984 0.012219093 4288387995
-0.82672346 -0.073741294 0.012507333 4288387995
-0.7768411 -0.07281962 0.012095035 4288387995
-0.72501981 -0.075398885 0.012309938 4288387995
-0.67331779 -0.075069673 0.011974762 4288387995
-0.62497503 -0.073858999 0.011799646 4288387995
-0.57423311 -0.076106355 0.011967187 4288387995
-0.52582955 -0.073184595 0.01171404 4288387995
-0.47478542 -0.074138314 0.011709381 4288387995
-0.42471495 -0.074472539 0.011766157 4288322202
-0.37413418 -0.078406945 0.011795105 4288387995
-0.32359129 -0.074986145 0.01184465 4288387995
-0.27549049 -0.07555858 0.01221341 4288387995
-0.2279979 -0.075180672 0.012046955 4288387995
-0.1729251 -0.076160245 0.012330769 4288322202
-0.12518418 -0.079428874 0.027751552 4285361517
0.13086353 -0.075680159 0.026442144 4290559164
0.17647268 -0.074468017 0.011908558 4288387995
0.22466876 -0.075648643 0.012021097 4288322202
0.27464572 -0.075185396 0.011871081 4288387995
0.32455021 -0.074748553 0.011702079 4288322202
0.37659314 -0.074393123 0.011525013 4288387995
0.42466605 -0.07537473 0.011318456 4288387995
0.47511846 -0.074876092 0.011471212 4288387995
0.52502489 -0.07500799 0.01162469 4288322202
0.57500654 -0.074713804 0.011699127 4288387995
0.62445694 -0.075749189 0.011443152 4288387995
0.6751523 -0.075661637 0.011310476 4288387995
0.72509855 -0.074969247 0.011786803 4288387995
0.77338129 -0.074720949 0.012012676 4288387995
0.82528597 -0.072160095 0.012459273 4288387995
0.87471348 -0.073863238 0.012003883 4288387995
0.92464179 -0.076350667 0.012415567 4288322202
0.97093147 -0.076797001 0.02834711 4285427310
1.2291176 -0.080415167 0.023811335 4290295992
1.2761865 -0.076963454 0.011820135 4288322202
1.3238255 -0.075790532 0.011918884 4288387995
1.3755571 -0.073944174 0.011941171 4288387995
-1.3749331 -0.025710082 0.011412815 4288387995
-1.325605 -0.024374818 0.01141611 4288387995
-1.2752661 -0.026151108 0.011405169 4288322202
-1.2465184 -0.024539841 0.028870761 4285032552
-0.95391273 -0.026959445 0.030180553 4291414473
-0.92400855 -0.015369296 0.019215062 4289572269
-0.87972575 -0.032301862 0.011683812 4288322202
-0.81976533 -0.026596433 0.012453331 4288387995
-0.77466309 -0.022335239 0.012564187 4288387995
-0.72588176 -0.026484696 0.012219569 4288387995
-0.67453623 -0.02454295 0.012235617 4288387995
-0.62232387 -0.028471068 0.012000295 4288387995
-0.57627052 -0.022908384 0.011653841 4288387995
-0.52476221 -0.024852687 0.011502477 4288387995
-0.47455266 -0.024963319 0.011527876 4288387995
-0.4240016 -0.024142759 0.011656989 4288322202
-0.37632322 -0.025140855 0.011996863 4288387995
-0.32653061 -0.02417204 0.012071073 4288387995
-0.27408361 -0.027032876 0.012087429 4288387995
-0.22526042 -0.024710078 0.012267766 4288387995
-0.16931713 -0.020230368 0.016074648 4287664272
-0.14415024 -0.029331282 0.03017699 4284900966
0.14606778 -0.026566828 0.029545913 4291348680
0.16954896 -0.022714078 0.016421605 4289111718
0.22437008 -0.026315102 0.011635794 4288322202
0.27512041 -0.024928784 0.011348091 4288387995
0.32495508 -0.024500661 0.011388811 4288387995
0.37480149 -0.024537453 0.011512267 4288387995
0.4248693 -0.025672549 0.011488348 4288387995
0.47489789 -0.025552331 0.011425887 4288387995
0.52544791 -0.024394384 0.011482139 4288387995
0.57512951 -0.025017286 0.011793821 4288387995
0.6243391 -0.025239864 0.011708199 4288322202
0.67472667 -0.025514854 0.011836536 4288387995
0.72516489 -0.025036579 0.011859739 4288322202
0.77487677 -0.024793142 0.012030822 4288387995
0.82600021 -0.024551082 0.012173438 4288387995
0.87350565 -0.02554982 0.011776224 4288387995
0.93219274 -0.021215867 0.018967593 4287137928
0.95380569 -0.026806522 0.032099962 4284966759
1.2475004 -0.02634717 0.026921535 4291414473
1.2713306 -0.020701412 0.01613041 4289045925
1.3246471 -0.024822459 0.011895107 4288387995
1.3745629 -0.025028223 0.011825051 4288387995
-1.374223 0.023532994 0.011538737 4288387995
-1.3253566 0.025123306 0.011556703 4288256409
-1.2698063 0.021388724 0.015654596 4287598479
-1.2448204 0.029243929 0.028680729 4284966759
-0.9559533 0.030604878 0.029891504 4290822336
-0.92717946 0.020362798 0.01557822 4288848546
-0.87725151 0.02597145 0.012430517 4288387995
-0.82742965 0.02769158 0.012056994 4288387995
-0.77371383 0.023676338 0.013258412 4288387995
-0.72259784 0.022991054 0.012188808 4288387995
-0.67440528 0.026740843 0.011964318 4288387995
-0.62519044 0.027166273 0.011612488 4288387995
-0.5746128 0.02609398 0.011410508 4288387995
-0.52499437 0.025423491 0.011729341 4288387995
-0.4763346 0.025810912 0.011948734 4288387995
-0.42588323 0.024604408 0.012013887 4288387995
-0.37434864 0.025715632 0.012209263 4288387995
-0.32404128 0.023650717 0.011967874 4288387995
-0.27445832 0.023535315 0.012171262 4288322202
-0.22299013 0.02684851 0.01199771 4288322202
-0.16930665 0.021353612 0.018103817 4287401100
-0.14598756 0.024303626 0.031155691 4284900966
0.14680992 0.024134429 0.028690021 4290888129
0.16723457 0.020458275 0.017233841 4289243304
0.22514354 0.024604309 0.011822462 4288387995
0.274847 0.024490451 0.011968623 4288387995
0.32504493 0.025415234 0.011667755 4288387995
0.37484318 0.025195988 0.011390967 4288387995
0.42465097 0.025150463 0.011593022 4288387995
0.47483617 0.025331063 0.01153842 4288387995
0.52490282 0.02220612 0.011841205 4288387995
0.57651061 0.025960937 0.011878441 4288387995
0.62499493 0.025356121 0.01214522 4288387995
0.67520386 0.025150336 0.011502603 4288387995
0.72634667 0.024042377 0.011738804 4288387995
0.77392936 0.024855768 0.011814142 4288322202
0.82498723 0.031733584 0.012012944 4288387995
0.87586421 0.026049118 0.011996985 4288387995
0.93191028 0.022103403 0.018663911 4287137928
0.95579457 0.030476475 0.030312745 4285098345
1.2470411 0.025909528 0.027060192 4290822336
1.2728982 0.022231519 0.014342231 4288848546
1.3253388 0.027158808 0.011880327 4288322202
1.3740511 0.024576079 0.011839938 4288387995
-1.3749543 0.076560028 0.011542698 4288387995
-1.3225698 0.074416287 0.011348079 4288387995
-1.2747884 0.074575983 0.011184525 4288322202
-1.2304879 0.076172031 0.025205705 4285624689
-0.97005355 0.074291177 0.027723363 4289440683
-0.93387467 0.07614322 0.01203037 4288387995
-0.8728444 0.073478125 0.012055027 4288322202
-0.82403541 0.07529401 0.012360281 4288387995
-0.77605534 0.07365033 0.012765998 4288387995
-0.72619325 0.075530879 0.012043355 4288387995
-0.67527312 0.073744386 0.011388336 4288387995
-0.62481612 0.0750935 0.011435625 4288387995
-0.57483667 0.075251475 0.011408282 4288387995
-0.52463531 0.075610034 0.012254872 4288387995
-0.47525692 0.072850302 0.012005465 4288322202
-0.42479253 0.075862028 0.012009353 4288387995
-0.37498254 0.073012188 0.011836955 4288387995
-0.32341409 0.078401782 0.012211559 4288387995
-0.27679247 0.073254876 0.012103962 4288387995
-0.22496521 0.074985385 0.012243578 4288387995
-0.17331886 0.075995035 0.012082246 4288322202
-0.13068055 0.076047935 0.0291922 4285295724
0.13071905 0.076060124 0.025283834 4289440683
0.17590384 0.074443072 0.012020176 4288322202
0.22626883 0.074239627 0.01188447 4288387995
0.27498329 0.075153567 0.011837802 4288387995
0.32575127 0.074329145 0.011619112 4288387995
0.37478089 0.074921153 0.011393295 4288387995
0.42490304 0.07522577 0.011320832 4288387995
0.4752177 0.075172707 0.011729048 4288387995
0.52544981 0.075945094 0.0114474 4288387995
0.57540828 0.0749254 0.011828177 4288387995
0.62494671 0.074774168 0.011906789 4288387995
0.67402357 0.074555367 0.012115499 4288322202
0.7237013 0.077129915 0.012219206 4288387995
0.77295023 0.074018054 0.012186543 4288322202
0.82478178 0.07413175 0.012455118 4288387995
0.87514597 0.074454062 0.012370253 4288322202
0.92483461 0.072837591 0.012082725 4288387995
0.97059828 0.07575053 0.027332917 4285493103
1.2306836 0.075576447 0.024506159 4289506476
1.2767109 0.072549522 0.01170191 4288387995
1.3257773 0.074116342 0.011809399 4288322202
1.3759111 0.074517466 0.011933758 4288322202
-1.377332 0.12472909 0.011583498 4288387995
-1.3239359 0.1236752 0.011268411 4288387995
-1.2750165 0.12477188 0.011332258 4288387995
-1.2203254 0.11969925 0.016867112 4287269514
-1.1775638 0.12919746 0.026477808 4285624689
-1.1241448 0.14647284 0.029018113 4285032552
-1.0709558 0.1447406 0.029444262 4285229931
-1.0232267 0.12867074 0.026743609 4287203721
-0.98109752 0.11959633 0.017175589 4288387995
-0.92638493 0.129893 0.012553677 4288387995
-0.87470955 0.12599258 0.011983652 4288322202
-0.82457745 0.12536135 0.012254997 4288387995
-0.77452266 0.12377895 0.012462126 4288387995
-0.72517186 0.12265602 0.012455015 4288387995
-0.67465395 0.12475108 0.011420677 4288387995
-0.62433386 0.12579112 0.011284068 4288387995
-0.57599354 0.12565067 0.011562453 4288387995
-0.52525109 0.12511462 0.01195922 4288387995
-0.47650963 0.12429988 0.011851357 4288387995
-0.42570618 0.12434917 0.011739265 4288387995
-0.37551314 0.12605935 0.01173644 4288387995
-0.3246938 0.12518963 0.012537661 4288387995
-0.27693835 0.12476802 0.012123084 4288387995
-0.22661377 0.12811053 0.012303008 4288387995
-0.17751904 0.12453163 0.01197933 4288322202
-0.11872721 0.12016372 0.019752372 4287006342
-0.076097302 0.13110638 0.028195238 4285558896
-0.028724033 0.14504789 0.030166065 4284966759
0.027763085 0.14464961 0.028463257 4285164138
0.077541195 0.1291386 0.026759524 4287203721
0.11953591 0.11758494 0.018776964 4288387995
0.1745975 0.12477253 0.012065277 4288322202
0.22726002 0.12592338 0.011754256 4288387995
0.27488008 0.12598169 0.011774388 4288387995
0.32516879 0.12567624 0.011600384 4288387995
0.37456992 0.12474608 0.011665625 4288387995
0.42491195 0.12525134 0.011751008 4288387995
